0.5 124.51 124.51 2 1 0
0.498512 124.471 124.471 1 1 0
0.498712 124.441 124.441 1 1 0
0.499069 124.381 124.381 1 1 0
0.499537 124.281 124.281 1 1 0
0.499843 124.181 124.181 1 1 0
0.499988 124.081 124.081 1 1 0
0.5 124.042 124.042 1 1 0
0.499919 123.942 123.942 2 1 0
0.499674 123.842 123.842 2 1 0
0.499265 123.742 123.742 2 1 0
0.498691 123.642 123.642 2 1 0
0.497952 123.542 123.542 2 1 0
0.497047 123.442 123.442 2 1 0
0.495976 123.342 123.342 2 1 0
0.494737 123.242 123.242 2 1 0
0.493331 123.142 123.142 2 1 0
0.491757 123.042 123.042 2 1 0
0.490015 122.942 122.942 2 1 0
0.488103 122.842 122.842 2 1 0
0.486022 122.742 122.742 2 1 0
0.483771 122.642 122.642 2 1 0
0.48135 122.542 122.542 2 1 0
0.478758 122.442 122.442 2 1 0
0.475995 122.342 122.342 2 1 0
0.473061 122.242 122.242 2 1 0
0.469955 122.142 122.142 2 1 0
0.466678 122.042 122.042 2 1 0
0.463229 121.942 121.942 2 1 0
0.459607 121.842 121.842 2 1 0
0.455813 121.743 121.743 2 1 0
0.451846 121.643 121.643 2 1 0
0.447707 121.543 121.543 2 1 0
0.443394 121.443 121.443 2 1 0
0.438909 121.343 121.343 2 1 0
0.434251 121.243 121.243 2 1 0
0.429419 121.144 121.144 2 1 0
0.424415 121.044 121.044 2 1 0
0.419237 120.944 120.944 2 1 0
0.413886 120.844 120.844 2 1 0
0.408362 120.744 120.744 2 1 0
0.402666 120.645 120.645 2 1 0
0.396796 120.545 120.545 2 1 0
0.390754 120.445 120.445 2 1 0
0.384539 120.346 120.346 2 1 0
0.378152 120.246 120.246 2 1 0
0.371592 120.146 120.146 2 1 0
0.364861 120.047 120.047 2 1 0
0.357958 119.947 119.947 2 1 0
0.350884 119.847 119.847 2 1 0
0.343638 119.748 119.748 2 1 0
0.336222 119.648 119.648 2 1 0
0.328635 119.549 119.549 2 1 0
0.320878 119.449 119.449 2 1 0
0.312952 119.35 119.35 2 1 0
0.304856 119.25 119.25 2 1 0
0.296592 119.151 119.151 2 1 0
0.288159 119.051 119.051 2 1 0
0.279558 118.952 118.952 2 1 0
0.27079 118.853 118.853 2 1 0
0.261855 118.753 118.753 2 1 0
0.252754 118.654 118.654 2 1 0
0.243487 118.555 118.555 2 1 0
0.234055 118.455 118.455 2 1 0
0.224458 118.356 118.356 2 1 0
0.214698 118.257 118.257 2 1 0
0.204774 118.158 118.158 2 1 0
0.194688 118.059 118.059 2 1 0
0.184441 117.959 117.959 2 1 0
0.174032 117.86 117.86 2 1 0
0.163463 117.761 117.761 2 1 0
0.152734 117.662 117.662 2 1 0
0.141846 117.563 117.563 2 1 0
0.130801 117.464 117.464 2 1 0
0.119598 117.365 117.365 2 1 0
0.108239 117.266 117.266 2 1 0
0.0967243 117.167 117.167 2 1 0
0.0850551 117.068 117.068 2 1 0
0.0732322 116.97 116.97 2 1 0
0.0612565 116.871 116.871 2 1 0
0.0491288 116.772 116.772 2 1 0
0.0368502 116.673 116.673 2 1 0
0.0244216 116.575 116.575 2 1 0
0.011844 116.476 116.476 2 1 0
-0.000881668 116.377 116.377 2 1 0
0.5 124.51 124.51 2 1 0
0.497909 124.55 124.55 1 1 0
0.497657 124.58 124.58 1 1 0
0.497108 124.64 124.64 1 1 0
0.496068 124.74 124.74 1 1 0
0.49487 124.84 124.84 1 1 0
0.493515 124.94 124.94 1 1 0
0.492005 125.04 125.04 1 1 0
0.49034 125.14 125.14 1 1 0
0.48852 125.24 125.24 1 1 0
0.486548 125.34 125.34 1 1 0
0.484423 125.44 125.44 1 1 0
0.482147 125.54 125.54 1 1 0
0.479721 125.64 125.64 1 1 0
0.477146 125.74 125.74 1 1 0
0.474422 125.84 125.84 1 1 0
0.471551 125.94 125.94 1 1 0
0.468534 126.04 126.04 1 1 0
0.465371 126.14 126.14 1 1 0
0.462064 126.24 126.24 1 1 0
0.458614 126.34 126.34 1 1 0
0.455022 126.44 126.44 1 1 0
0.451289 126.539 126.539 1 1 0
0.447416 126.639 126.639 1 1 0
0.443404 126.739 126.739 1 1 0
0.439255 126.839 126.839 1 1 0
0.434969 126.939 126.939 1 1 0
0.430548 127.039 127.039 1 1 0
0.425992 127.139 127.139 1 1 0
0.421304 127.238 127.238 1 1 0
0.416484 127.338 127.338 1 1 0
0.411533 127.438 127.438 1 1 0
0.406452 127.538 127.538 1 1 0
0.401244 127.638 127.638 1 1 0
0.395908 127.737 127.737 1 1 0
0.390447 127.837 127.837 1 1 0
0.384861 127.937 127.937 1 1 0
0.379152 128.037 128.037 1 1 0
0.37332 128.136 128.136 1 1 0
0.367368 128.236 128.236 1 1 0
0.361297 128.336 128.336 1 1 0
0.355107 128.436 128.436 1 1 0
0.3488 128.535 128.535 1 1 0
0.342378 128.635 128.635 1 1 0
0.335841 128.735 128.735 1 1 0
0.329191 128.834 128.834 1 1 0
0.322429 128.934 128.934 1 1 0
0.315557 129.033 129.033 1 1 0
0.308575 129.133 129.133 1 1 0
0.301486 129.233 129.233 1 1 0
0.29429 129.332 129.332 1 1 0
0.286989 129.432 129.432 1 1 0
0.279584 129.531 129.531 1 1 0
0.272076 129.631 129.631 1 1 0
0.264467 129.73 129.73 1 1 0
0.256758 129.83 129.83 1 1 0
0.248951 129.929 129.929 1 1 0
0.241046 130.029 130.029 1 1 0
0.233045 130.128 130.128 1 1 0
0.22495 130.228 130.228 1 1 0
0.216761 130.327 130.327 1 1 0
0.20848 130.427 130.427 1 1 0
0.200109 130.526 130.526 1 1 0
0.191648 130.625 130.625 1 1 0
0.183099 130.725 130.725 1 1 0
0.174464 130.824 130.824 1 1 0
0.165744 130.924 130.924 1 1 0
0.156939 131.023 131.023 1 1 0
0.148052 131.122 131.122 1 1 0
0.139083 131.221 131.221 1 1 0
0.130034 131.321 131.321 1 1 0
0.120907 131.42 131.42 1 1 0
0.111702 131.519 131.519 1 1 0
0.102421 131.618 131.618 1 1 0
0.0930656 131.718 131.718 1 1 0
0.0836365 131.817 131.817 1 1 0
0.0741352 131.916 131.916 1 1 0
0.064563 132.015 132.015 1 1 0
0.0549212 132.114 132.114 1 1 0
0.0452111 132.214 132.214 1 1 0
0.0354339 132.313 132.313 1 1 0
0.0255911 132.412 132.412 1 1 0
0.0156838 132.511 132.511 1 1 0
0.00571324 132.61 132.61 1 1 0
-0.00431921 132.709 132.709 1 1 0
