0.5 49.9733 49.9733 2 1 0
0.54 49.9733 49.9733 1 1 0
0.58 49.9733 49.9733 1 1 0
0.66 49.9733 49.9733 1 1 0
0.82 49.9733 49.9733 1 1 0
1.14 49.9733 49.9733 1 1 0
1.50009 49.9733 49.9733 1 1 0
2.00009 49.9733 49.9733 2 1 0
1.50009 49.9733 49.9733 2 2 0
1.4985 49.9734 49.9734 2 2 0
1.49692 49.9736 49.9736 2 2 0
1.49378 49.9739 49.9739 2 2 0
1.48754 49.9745 49.9745 2 2 0
1.47523 49.9756 49.9756 2 2 0
1.45128 49.978 49.978 2 2 0
1.41695 49.9815 49.9815 2 2 0
1.38308 49.9851 49.9851 2 2 0
1.351 49.9887 49.9887 2 2 0
1.32057 49.9924 49.9924 2 2 0
1.29167 49.996 49.996 2 2 0
1.26419 49.9996 49.9996 2 2 0
1.23803 50.0032 50.0032 2 2 0
1.2131 50.0068 50.0068 2 2 0
1.18931 50.0104 50.0104 2 2 0
1.1666 50.014 50.014 2 2 0
1.14489 50.0176 50.0176 2 2 0
1.12411 50.0212 50.0212 2 2 0
1.10422 50.0248 50.0248 2 2 0
1.08515 50.0284 50.0284 2 2 0
1.06687 50.032 50.032 2 2 0
1.04932 50.0356 50.0356 2 2 0
1.03246 50.0391 50.0391 2 2 0
1.01625 50.0427 50.0427 2 2 0
1.00066 50.0463 50.0463 2 2 0
0.98565 50.0498 50.0498 2 2 0
0.971196 50.0534 50.0534 2 2 0
0.957267 50.0569 50.0569 2 2 0
0.943834 50.0605 50.0605 2 2 0
0.930875 50.064 50.064 2 2 0
0.918364 50.0675 50.0675 2 2 0
0.906281 50.0711 50.0711 2 2 0
0.894604 50.0746 50.0746 2 2 0
0.883316 50.0781 50.0781 2 2 0
0.872397 50.0816 50.0816 2 2 0
0.861832 50.0851 50.0851 2 2 0
0.851603 50.0886 50.0886 2 2 0
0.841698 50.0921 50.0921 2 2 0
0.8321 50.0956 50.0956 2 2 0
0.822798 50.0991 50.0991 2 2 0
0.813779 50.1026 50.1026 2 2 0
0.805031 50.1061 50.1061 2 2 0
0.796542 50.1096 50.1096 2 2 0
0.788304 50.1131 50.1131 2 2 0
0.780305 50.1165 50.1165 2 2 0
0.772536 50.12 50.12 2 2 0
0.764989 50.1235 50.1235 2 2 0
0.757654 50.1269 50.1269 2 2 0
0.750525 50.1304 50.1304 2 2 0
0.743593 50.1338 50.1338 2 2 0
0.736851 50.1373 50.1373 2 2 0
0.730293 50.1407 50.1407 2 2 0
0.723911 50.1442 50.1442 2 2 0
0.7177 50.1476 50.1476 2 2 0
0.711653 50.151 50.151 2 2 0
0.705766 50.1545 50.1545 2 2 0
0.700033 50.1579 50.1579 2 2 0
0.694448 50.1613 50.1613 2 2 0
0.689007 50.1647 50.1647 2 2 0
0.683705 50.1681 50.1681 2 2 0
0.678538 50.1715 50.1715 2 2 0
0.673501 50.1749 50.1749 2 2 0
0.66859 50.1783 50.1783 2 2 0
0.663802 50.1817 50.1817 2 2 0
0.659133 50.1851 50.1851 2 2 0
0.654579 50.1885 50.1885 2 2 0
0.650137 50.1918 50.1918 2 2 0
0.645803 50.1952 50.1952 2 2 0
0.641575 50.1986 50.1986 2 2 0
0.637449 50.2019 50.2019 2 2 0
0.633422 50.2053 50.2053 2 2 0
0.629493 50.2087 50.2087 2 2 0
0.625657 50.212 50.212 2 2 0
0.621913 50.2154 50.2154 2 2 0
0.618258 50.2187 50.2187 2 2 0
0.61469 50.222 50.222 2 2 0
0.611207 50.2254 50.2254 2 2 0
0.607805 50.2287 50.2287 2 2 0
0.604485 50.232 50.232 2 2 0
0.601242 50.2354 50.2354 2 2 0
0.598076 50.2387 50.2387 2 2 0
0.594984 50.242 50.242 2 2 0
0.591965 50.2453 50.2453 2 2 0
0.589016 50.2486 50.2486 2 2 0
0.586137 50.2519 50.2519 2 2 0
0.583326 50.2552 50.2552 2 2 0
0.580581 50.2585 50.2585 2 2 0
0.577901 50.2618 50.2618 2 2 0
0.575283 50.2651 50.2651 2 2 0
0.572728 50.2683 50.2683 2 2 0
0.570233 50.2716 50.2716 2 2 0
0.567798 50.2749 50.2749 2 2 0
0.56542 50.2782 50.2782 2 2 0
0.5631 50.2814 50.2814 2 2 0
0.560834 50.2847 50.2847 2 2 0
0.558624 50.288 50.288 2 2 0
0.556467 50.2912 50.2912 2 2 0
0.554362 50.2945 50.2945 2 2 0
0.552309 50.2977 50.2977 2 2 0
0.550306 50.3009 50.3009 2 2 0
0.548353 50.3042 50.3042 2 2 0
0.546449 50.3074 50.3074 2 2 0
0.544592 50.3106 50.3106 2 2 0
0.542782 50.3139 50.3139 2 2 0
0.541019 50.3171 50.3171 2 2 0
0.5393 50.3203 50.3203 2 2 0
0.537627 50.3235 50.3235 2 2 0
0.535997 50.3267 50.3267 2 2 0
0.53441 50.3299 50.3299 2 2 0
0.532866 50.3331 50.3331 2 2 0
0.531364 50.3363 50.3363 2 2 0
0.529902 50.3395 50.3395 2 2 0
0.528482 50.3427 50.3427 2 2 0
0.527101 50.3459 50.3459 2 2 0
0.52576 50.3491 50.3491 2 2 0
0.524458 50.3523 50.3523 2 2 0
0.523194 50.3554 50.3554 2 2 0
0.521968 50.3586 50.3586 2 2 0
0.520779 50.3618 50.3618 2 2 0
0.519628 50.3649 50.3649 2 2 0
0.518512 50.3681 50.3681 2 2 0
0.517433 50.3713 50.3713 2 2 0
0.516389 50.3744 50.3744 2 2 0
0.515381 50.3776 50.3776 2 2 0
0.514407 50.3807 50.3807 2 2 0
0.513468 50.3838 50.3838 2 2 0
0.512562 50.387 50.387 2 2 0
0.511691 50.3901 50.3901 2 2 0
0.510853 50.3932 50.3932 2 2 0
0.510047 50.3964 50.3964 2 2 0
0.509275 50.3995 50.3995 2 2 0
0.508535 50.4026 50.4026 2 2 0
0.507828 50.4057 50.4057 2 2 0
0.507152 50.4088 50.4088 2 2 0
0.506508 50.4119 50.4119 2 2 0
0.505896 50.415 50.415 2 2 0
0.505315 50.4181 50.4181 2 2 0
0.504765 50.4212 50.4212 2 2 0
0.504245 50.4243 50.4243 2 2 0
0.503757 50.4274 50.4274 2 2 0
0.503299 50.4305 50.4305 2 2 0
0.502871 50.4336 50.4336 2 2 0
0.502473 50.4367 50.4367 2 2 0
0.502106 50.4397 50.4397 2 2 0
0.501768 50.4428 50.4428 2 2 0
0.50146 50.4459 50.4459 2 2 0
0.501182 50.4489 50.4489 2 2 0
0.500933 50.452 50.452 2 2 0
0.500714 50.455 50.455 2 2 0
0.500524 50.4581 50.4581 2 2 0
0.500364 50.4611 50.4611 2 2 0
0.500233 50.4642 50.4642 2 2 0
0.500131 50.4672 50.4672 2 2 0
0.500058 50.4703 50.4703 2 2 0
0.500014 50.4733 50.4733 2 2 0
0.5 50.4763 50.4763 1 2 0
0.500015 50.4793 50.4793 1 2 0
0.500058 50.4824 50.4824 1 2 0
0.500131 50.4854 50.4854 1 2 0
0.500233 50.4884 50.4884 1 2 0
0.500365 50.4914 50.4914 1 2 0
0.500525 50.4944 50.4944 1 2 0
0.500715 50.4974 50.4974 1 2 0
0.500935 50.5004 50.5004 1 2 0
0.501184 50.5034 50.5034 1 2 0
0.501462 50.5064 50.5064 1 2 0
0.50177 50.5094 50.5094 1 2 0
0.502108 50.5124 50.5124 1 2 0
0.502476 50.5154 50.5154 1 2 0
0.502874 50.5184 50.5184 1 2 0
0.503302 50.5213 50.5213 1 2 0
0.50376 50.5243 50.5243 1 2 0
0.504249 50.5273 50.5273 1 2 0
0.504768 50.5303 50.5303 1 2 0
0.505318 50.5332 50.5332 1 2 0
0.5059 50.5362 50.5362 1 2 0
0.506512 50.5391 50.5391 1 2 0
0.507156 50.5421 50.5421 1 2 0
0.507832 50.545 50.545 1 2 0
0.50854 50.548 50.548 1 2 0
0.50928 50.5509 50.5509 1 2 0
0.510052 50.5539 50.5539 1 2 0
0.510857 50.5568 50.5568 1 2 0
0.511695 50.5597 50.5597 1 2 0
0.512567 50.5627 50.5627 1 2 0
0.513473 50.5656 50.5656 1 2 0
0.514412 50.5685 50.5685 1 2 0
0.515386 50.5714 50.5714 1 2 0
0.516394 50.5744 50.5744 1 2 0
0.517438 50.5773 50.5773 1 2 0
0.518518 50.5802 50.5802 1 2 0
0.519633 50.5831 50.5831 1 2 0
0.520785 50.586 50.586 1 2 0
0.521973 50.5889 50.5889 1 2 0
0.5232 50.5918 50.5918 1 2 0
0.524463 50.5947 50.5947 1 2 0
0.525766 50.5976 50.5976 1 2 0
0.527107 50.6005 50.6005 1 2 0
0.528487 50.6033 50.6033 1 2 0
1.50009 49.9733 49.9733 2 2 0
1.50168 49.9731 49.9731 1 2 0
1.50326 49.973 49.973 1 2 0
1.50645 49.9727 49.9727 1 2 0
1.51287 49.9721 49.9721 1 2 0
1.5259 49.971 49.971 1 2 0
1.55273 49.9686 49.9686 1 2 0
1.59499 49.9651 49.9651 1 2 0
1.6418 49.9615 49.9615 1 2 0
1.69176 49.9578 49.9578 1 2 0
1.74515 49.9541 49.9541 1 2 0
1.80236 49.9505 49.9505 1 2 0
1.86377 49.9468 49.9468 1 2 0
1.92986 49.9432 49.9432 1 2 0
2.00117 49.9395 49.9395 1 2 0
0.528487 50.6033 50.6033 2 2 0
0.528599 50.6036 50.6036 1 2 0
0.528712 50.6038 50.6038 1 2 0
0.528937 50.6043 50.6043 1 2 0
0.529392 50.6052 50.6052 1 2 0
0.530313 50.607 50.607 1 2 0
0.531785 50.6099 50.6099 1 2 0
0.533299 50.6128 50.6128 1 2 0
0.534855 50.6157 50.6157 1 2 0
0.536454 50.6185 50.6185 1 2 0
0.538096 50.6214 50.6214 1 2 0
0.539782 50.6242 50.6242 1 2 0
0.541512 50.6271 50.6271 1 2 0
0.543289 50.63 50.63 1 2 0
0.545111 50.6328 50.6328 1 2 0
0.546981 50.6356 50.6356 1 2 0
0.548899 50.6385 50.6385 1 2 0
0.550865 50.6413 50.6413 1 2 0
0.552882 50.6442 50.6442 1 2 0
0.554949 50.647 50.647 1 2 0
0.557068 50.6498 50.6498 1 2 0
0.559239 50.6527 50.6527 1 2 0
0.561464 50.6555 50.6555 1 2 0
0.563745 50.6583 50.6583 1 2 0
0.566081 50.6611 50.6611 1 2 0
0.568474 50.6639 50.6639 1 2 0
0.570925 50.6668 50.6668 1 2 0
0.573436 50.6696 50.6696 1 2 0
0.576008 50.6724 50.6724 1 2 0
0.578642 50.6752 50.6752 1 2 0
0.58134 50.678 50.678 1 2 0
0.584103 50.6808 50.6808 1 2 0
0.586932 50.6836 50.6836 1 2 0
0.589829 50.6863 50.6863 1 2 0
0.592796 50.6891 50.6891 1 2 0
0.595835 50.6919 50.6919 1 2 0
0.598946 50.6947 50.6947 1 2 0
0.602133 50.6975 50.6975 1 2 0
0.605396 50.7003 50.7003 1 2 0
0.608738 50.703 50.703 1 2 0
0.612161 50.7058 50.7058 1 2 0
0.615666 50.7086 50.7086 1 2 0
0.619257 50.7113 50.7113 1 2 0
0.622935 50.7141 50.7141 1 2 0
0.626703 50.7168 50.7168 1 2 0
0.630563 50.7196 50.7196 1 2 0
0.634518 50.7223 50.7223 1 2 0
0.63857 50.7251 50.7251 1 2 0
0.642723 50.7278 50.7278 1 2 0
0.646979 50.7306 50.7306 1 2 0
0.65134 50.7333 50.7333 1 2 0
0.655811 50.736 50.736 1 2 0
0.660395 50.7388 50.7388 1 2 0
0.665095 50.7415 50.7415 1 2 0
0.669915 50.7442 50.7442 1 2 0
0.674857 50.7469 50.7469 1 2 0
0.679928 50.7497 50.7497 1 2 0
0.685129 50.7524 50.7524 1 2 0
0.690467 50.7551 50.7551 1 2 0
0.695945 50.7578 50.7578 1 2 0
0.701567 50.7605 50.7605 1 2 0
0.70734 50.7632 50.7632 1 2 0
0.713267 50.7659 50.7659 1 2 0
0.719356 50.7686 50.7686 1 2 0
0.72561 50.7713 50.7713 1 2 0
0.732036 50.774 50.774 1 2 0
0.738641 50.7767 50.7767 1 2 0
0.74543 50.7794 50.7794 1 2 0
0.752412 50.7821 50.7821 1 2 0
0.759593 50.7848 50.7848 1 2 0
0.766981 50.7874 50.7874 1 2 0
0.774583 50.7901 50.7901 1 2 0
0.782409 50.7928 50.7928 1 2 0
0.790468 50.7955 50.7955 1 2 0
0.798769 50.7981 50.7981 1 2 0
0.807322 50.8008 50.8008 1 2 0
0.816137 50.8034 50.8034 1 2 0
0.825226 50.8061 50.8061 1 2 0
0.834601 50.8088 50.8088 1 2 0
0.844275 50.8114 50.8114 1 2 0
0.85426 50.8141 50.8141 1 2 0
0.864571 50.8167 50.8167 1 2 0
0.875223 50.8193 50.8193 1 2 0
0.886232 50.822 50.822 1 2 0
0.897616 50.8246 50.8246 1 2 0
0.909392 50.8273 50.8273 1 2 0
0.921579 50.8299 50.8299 1 2 0
0.934199 50.8325 50.8325 1 2 0
0.947274 50.8351 50.8351 1 2 0
0.960827 50.8378 50.8378 1 2 0
0.974883 50.8404 50.8404 1 2 0
0.989471 50.843 50.843 1 2 0
1.00462 50.8456 50.8456 1 2 0
1.02036 50.8482 50.8482 1 2 0
1.03672 50.8508 50.8508 1 2 0
1.05375 50.8534 50.8534 1 2 0
1.07148 50.8561 50.8561 1 2 0
1.08995 50.8587 50.8587 1 2 0
1.10921 50.8612 50.8612 1 2 0
1.12931 50.8638 50.8638 1 2 0
1.15031 50.8664 50.8664 1 2 0
1.17226 50.869 50.869 1 2 0
1.19523 50.8716 50.8716 1 2 0
1.21929 50.8742 50.8742 1 2 0
1.24451 50.8768 50.8768 1 2 0
1.27098 50.8793 50.8793 1 2 0
1.29879 50.8819 50.8819 1 2 0
1.32805 50.8845 50.8845 1 2 0
1.35887 50.8871 50.8871 1 2 0
1.39137 50.8896 50.8896 1 2 0
1.42568 50.8922 50.8922 1 2 0
1.46197 50.8947 50.8947 1 2 0
1.50041 50.8973 50.8973 1 2 0
1.54118 50.8998 50.8998 1 2 0
1.58449 50.9024 50.9024 1 2 0
1.6306 50.9049 50.9049 1 2 0
1.67977 50.9075 50.9075 1 2 0
1.7323 50.91 50.91 1 2 0
1.78854 50.9125 50.9125 1 2 0
1.84889 50.9151 50.9151 1 2 0
1.9138 50.9176 50.9176 1 2 0
1.98378 50.9201 50.9201 1 2 0
2.05943 50.9226 50.9226 1 2 0
0.5 49.9733 49.9733 2 1 0
0.46 49.9733 49.9733 1 1 0
0.42 49.9733 49.9733 1 1 0
0.34 49.9733 49.9733 1 1 0
0.18 49.9733 49.9733 1 1 0
-0.14 49.9733 49.9733 1 1 0
